ply
		format ascii 1.0
		element vertex 8832
		property float x
		property float y
		property float z
		property uchar red
		property uchar green
		property uchar blue
		end_header
108.000000 -73.000000 40.527000 167 167 167
109.000000 -73.000000 40.527000 168 168 168
110.000000 -73.000000 40.764000 169 169 169
111.000000 -73.000000 40.764000 170 170 170
112.000000 -73.000000 40.764000 171 171 171
113.000000 -73.000000 40.764000 184 184 184
114.000000 -73.000000 40.527000 224 224 224
115.000000 -73.000000 40.527000 236 236 236
116.000000 -73.000000 40.527000 235 235 235
117.000000 -73.000000 40.527000 236 236 236
118.000000 -73.000000 40.290001 236 236 236
63.000000 -74.000000 34.128002 188 188 188
64.000000 -74.000000 34.365002 186 186 186
65.000000 -74.000000 34.365002 178 178 178
66.000000 -74.000000 34.602001 163 163 163
67.000000 -74.000000 34.602001 108 108 108
68.000000 -74.000000 34.839001 68 68 68
69.000000 -74.000000 35.076000 78 78 78
70.000000 -74.000000 35.076000 97 97 97
71.000000 -74.000000 35.313000 119 119 119
72.000000 -74.000000 35.313000 140 140 140
73.000000 -74.000000 35.313000 149 149 149
74.000000 -74.000000 35.076000 152 152 152
75.000000 -74.000000 35.076000 152 152 152
76.000000 -74.000000 35.313000 148 148 148
77.000000 -74.000000 35.313000 144 144 144
78.000000 -74.000000 35.313000 144 144 144
79.000000 -74.000000 35.549999 145 145 145
80.000000 -74.000000 35.549999 144 144 144
81.000000 -74.000000 35.549999 144 144 144
82.000000 -74.000000 35.786999 144 144 144
83.000000 -74.000000 35.786999 145 145 145
84.000000 -74.000000 35.786999 147 147 147
85.000000 -74.000000 35.786999 148 148 148
86.000000 -74.000000 35.786999 148 148 148
87.000000 -74.000000 35.786999 150 150 150
88.000000 -74.000000 36.261002 149 149 149
89.000000 -74.000000 36.498001 144 144 144
90.000000 -74.000000 36.972000 146 146 146
91.000000 -74.000000 37.209000 156 156 156
92.000000 -74.000000 37.682999 163 163 163
93.000000 -74.000000 37.920002 166 166 166
94.000000 -74.000000 37.920002 164 164 164
95.000000 -74.000000 37.920002 161 161 161
96.000000 -74.000000 38.157001 157 157 157
97.000000 -74.000000 38.157001 155 155 155
98.000000 -74.000000 38.157001 155 155 155
99.000000 -74.000000 38.157001 157 157 157
100.000000 -74.000000 38.157001 158 158 158
101.000000 -74.000000 38.394001 160 160 160
102.000000 -74.000000 38.631001 159 159 159
103.000000 -74.000000 38.868000 155 155 155
104.000000 -74.000000 39.341999 160 160 160
105.000000 -74.000000 39.341999 160 160 160
106.000000 -74.000000 39.579002 160 160 160
107.000000 -74.000000 40.053001 162 162 162
108.000000 -74.000000 40.290001 165 165 165
109.000000 -74.000000 40.290001 167 167 167
110.000000 -74.000000 40.290001 165 165 165
111.000000 -74.000000 40.290001 164 164 164
112.000000 -74.000000 40.290001 165 165 165
113.000000 -74.000000 40.290001 181 181 181
114.000000 -74.000000 40.290001 223 223 223
115.000000 -74.000000 40.290001 235 235 235
116.000000 -74.000000 40.290001 235 235 235
117.000000 -74.000000 40.290001 236 236 236
118.000000 -74.000000 39.816002 236 236 236
63.000000 -75.000000 34.128002 200 200 200
64.000000 -75.000000 34.128002 191 191 191
65.000000 -75.000000 34.128002 184 184 184
66.000000 -75.000000 34.602001 170 170 170
67.000000 -75.000000 34.602001 104 104 104
68.000000 -75.000000 34.839001 52 52 52
69.000000 -75.000000 35.076000 45 45 45
70.000000 -75.000000 35.313000 51 51 51
71.000000 -75.000000 35.313000 69 69 69
72.000000 -75.000000 35.313000 100 100 100
73.000000 -75.000000 35.313000 132 132 132
74.000000 -75.000000 35.313000 149 149 149
75.000000 -75.000000 35.313000 153 153 153
76.000000 -75.000000 35.313000 152 152 152
77.000000 -75.000000 35.549999 147 147 147
78.000000 -75.000000 35.549999 143 143 143
79.000000 -75.000000 35.549999 146 146 146
80.000000 -75.000000 35.549999 148 148 148
81.000000 -75.000000 35.786999 146 146 146
82.000000 -75.000000 35.786999 145 145 145
83.000000 -75.000000 35.786999 147 147 147
84.000000 -75.000000 35.786999 149 149 149
85.000000 -75.000000 35.786999 145 145 145
86.000000 -75.000000 35.786999 146 146 146
87.000000 -75.000000 35.786999 148 148 148
88.000000 -75.000000 35.786999 145 145 145
89.000000 -75.000000 36.261002 144 144 144
90.000000 -75.000000 36.735001 150 150 150
91.000000 -75.000000 37.209000 161 161 161
92.000000 -75.000000 37.445999 167 167 167
93.000000 -75.000000 37.682999 166 166 166
94.000000 -75.000000 37.920002 165 165 165
95.000000 -75.000000 37.920002 167 167 167
96.000000 -75.000000 38.157001 163 163 163
97.000000 -75.000000 38.157001 158 158 158
98.000000 -75.000000 38.157001 155 155 155
99.000000 -75.000000 38.157001 156 156 156
100.000000 -75.000000 38.157001 157 157 157
101.000000 -75.000000 38.394001 160 160 160
102.000000 -75.000000 38.394001 163 163 163
103.000000 -75.000000 38.868000 162 162 162
104.000000 -75.000000 39.105000 164 164 164
105.000000 -75.000000 39.105000 159 159 159
106.000000 -75.000000 39.341999 157 157 157
107.000000 -75.000000 39.816002 159 159 159
108.000000 -75.000000 40.053001 163 163 163
109.000000 -75.000000 40.053001 164 164 164
110.000000 -75.000000 40.053001 158 158 158
111.000000 -75.000000 40.053001 157 157 157
112.000000 -75.000000 40.290001 158 158 158
113.000000 -75.000000 40.290001 178 178 178
114.000000 -75.000000 40.290001 224 224 224
115.000000 -75.000000 40.290001 234 234 234
116.000000 -75.000000 40.053001 232 232 232
117.000000 -75.000000 40.053001 236 236 236
118.000000 -75.000000 39.341999 237 237 237
63.000000 -76.000000 34.128002 204 204 204
64.000000 -76.000000 34.128002 193 193 193
65.000000 -76.000000 34.128002 185 185 185
66.000000 -76.000000 34.602001 149 149 149
67.000000 -76.000000 34.602001 78 78 78
68.000000 -76.000000 34.839001 48 48 48
69.000000 -76.000000 35.076000 42 42 42
70.000000 -76.000000 35.313000 41 41 41
71.000000 -76.000000 35.313000 42 42 42
72.000000 -76.000000 35.313000 50 50 50
73.000000 -76.000000 35.313000 73 73 73
74.000000 -76.000000 35.549999 108 108 108
75.000000 -76.000000 35.549999 136 136 136
76.000000 -76.000000 35.549999 151 151 151
77.000000 -76.000000 35.786999 154 154 154
78.000000 -76.000000 35.786999 149 149 149
79.000000 -76.000000 35.786999 149 149 149
80.000000 -76.000000 35.786999 152 152 152
81.000000 -76.000000 35.786999 152 152 152
82.000000 -76.000000 35.786999 152 152 152
83.000000 -76.000000 35.786999 151 151 151
84.000000 -76.000000 35.786999 146 146 146
85.000000 -76.000000 35.786999 144 144 144
86.000000 -76.000000 35.786999 149 149 149
87.000000 -76.000000 35.786999 148 148 148
88.000000 -76.000000 36.024002 145 145 145
89.000000 -76.000000 36.261002 146 146 146
90.000000 -76.000000 36.735001 152 152 152
91.000000 -76.000000 36.972000 160 160 160
92.000000 -76.000000 37.209000 168 168 168
93.000000 -76.000000 37.682999 169 169 169
94.000000 -76.000000 37.920002 169 169 169
95.000000 -76.000000 37.920002 172 172 172
96.000000 -76.000000 38.157001 170 170 170
97.000000 -76.000000 38.157001 163 163 163
98.000000 -76.000000 38.157001 158 158 158
99.000000 -76.000000 38.157001 158 158 158
100.000000 -76.000000 38.157001 159 159 159
101.000000 -76.000000 38.394001 160 160 160
102.000000 -76.000000 38.394001 162 162 162
103.000000 -76.000000 38.868000 164 164 164
104.000000 -76.000000 39.105000 166 166 166
105.000000 -76.000000 39.105000 159 159 159
106.000000 -76.000000 39.105000 159 159 159
107.000000 -76.000000 39.816002 158 158 158
108.000000 -76.000000 40.053001 157 157 157
109.000000 -76.000000 39.816002 155 155 155
110.000000 -76.000000 40.053001 151 151 151
111.000000 -76.000000 40.053001 155 155 155
112.000000 -76.000000 40.053001 156 156 156
113.000000 -76.000000 40.290001 178 178 178
114.000000 -76.000000 40.290001 225 225 225
115.000000 -76.000000 40.290001 234 234 234
116.000000 -76.000000 40.053001 232 232 232
117.000000 -76.000000 40.053001 236 236 236
118.000000 -76.000000 39.341999 236 236 236
63.000000 -77.000000 34.128002 198 198 198
64.000000 -77.000000 34.128002 180 180 180
65.000000 -77.000000 34.128002 147 147 147
66.000000 -77.000000 34.602001 91 91 91
67.000000 -77.000000 34.602001 54 54 54
68.000000 -77.000000 34.839001 44 44 44
69.000000 -77.000000 35.076000 40 40 40
70.000000 -77.000000 35.313000 40 40 40
71.000000 -77.000000 35.313000 40 40 40
72.000000 -77.000000 35.313000 41 41 41
73.000000 -77.000000 35.549999 43 43 43
74.000000 -77.000000 35.786999 53 53 53
75.000000 -77.000000 36.024002 76 76 76
76.000000 -77.000000 36.024002 108 108 108
77.000000 -77.000000 36.024002 138 138 138
78.000000 -77.000000 36.024002 152 152 152
79.000000 -77.000000 36.024002 155 155 155
80.000000 -77.000000 36.024002 155 155 155
81.000000 -77.000000 36.024002 156 156 156
82.000000 -77.000000 36.261002 154 154 154
83.000000 -77.000000 36.261002 151 151 151
84.000000 -77.000000 36.024002 148 148 148
85.000000 -77.000000 36.024002 148 148 148
86.000000 -77.000000 36.024002 148 148 148
87.000000 -77.000000 36.024002 148 148 148
88.000000 -77.000000 36.261002 148 148 148
89.000000 -77.000000 36.498001 149 149 149
90.000000 -77.000000 36.735001 156 156 156
91.000000 -77.000000 36.972000 161 161 161
92.000000 -77.000000 37.209000 166 166 166
93.000000 -77.000000 37.682999 168 168 168
94.000000 -77.000000 37.920002 169 169 169
95.000000 -77.000000 37.920002 170 170 170
96.000000 -77.000000 38.157001 169 169 169
97.000000 -77.000000 38.157001 165 165 165
98.000000 -77.000000 38.394001 162 162 162
99.000000 -77.000000 38.394001 161 161 161
100.000000 -77.000000 38.394001 163 163 163
101.000000 -77.000000 38.394001 165 165 165
102.000000 -77.000000 38.631001 164 164 164
103.000000 -77.000000 38.868000 161 161 161
104.000000 -77.000000 39.105000 162 162 162
105.000000 -77.000000 39.105000 160 160 160
106.000000 -77.000000 39.341999 161 161 161
107.000000 -77.000000 39.816002 149 149 149
108.000000 -77.000000 40.053001 139 139 139
109.000000 -77.000000 40.053001 141 141 141
110.000000 -77.000000 40.053001 146 146 146
111.000000 -77.000000 40.053001 155 155 155
112.000000 -77.000000 40.053001 157 157 157
113.000000 -77.000000 40.290001 179 179 179
114.000000 -77.000000 40.290001 225 225 225
115.000000 -77.000000 40.290001 236 236 236
116.000000 -77.000000 40.290001 236 236 236
117.000000 -77.000000 40.053001 236 236 236
118.000000 -77.000000 39.579002 236 236 236
63.000000 -78.000000 34.128002 131 131 131
64.000000 -78.000000 34.128002 103 103 103
65.000000 -78.000000 34.365002 72 72 72
66.000000 -78.000000 34.602001 52 52 52
67.000000 -78.000000 34.839001 45 45 45
68.000000 -78.000000 35.076000 41 41 41
69.000000 -78.000000 35.076000 39 39 39
70.000000 -78.000000 35.313000 40 40 40
71.000000 -78.000000 35.313000 40 40 40
72.000000 -78.000000 35.549999 41 41 41
73.000000 -78.000000 35.786999 41 41 41
74.000000 -78.000000 36.498001 42 42 42
75.000000 -78.000000 36.735001 44 44 44
76.000000 -78.000000 36.735001 52 52 52
77.000000 -78.000000 36.498001 72 72 72
78.000000 -78.000000 36.498001 103 103 103
79.000000 -78.000000 36.498001 132 132 132
80.000000 -78.000000 36.498001 150 150 150
81.000000 -78.000000 36.498001 157 157 157
82.000000 -78.000000 36.498001 150 150 150
83.000000 -78.000000 36.498001 146 146 146
84.000000 -78.000000 36.498001 145 145 145
85.000000 -78.000000 36.498001 144 144 144
86.000000 -78.000000 36.498001 147 147 147
87.000000 -78.000000 36.498001 152 152 152
88.000000 -78.000000 36.498001 153 153 153
89.000000 -78.000000 36.498001 152 152 152
90.000000 -78.000000 36.972000 157 157 157
91.000000 -78.000000 37.209000 164 164 164
92.000000 -78.000000 37.445999 166 166 166
93.000000 -78.000000 37.920002 168 168 168
94.000000 -78.000000 37.920002 168 168 168
95.000000 -78.000000 38.157001 169 169 169
96.000000 -78.000000 38.157001 168 168 168
97.000000 -78.000000 38.394001 163 163 163
98.000000 -78.000000 38.394001 162 162 162
99.000000 -78.000000 38.394001 162 162 162
100.000000 -78.000000 38.631001 165 165 165
101.000000 -78.000000 38.631001 169 169 169
102.000000 -78.000000 38.631001 168 168 168
103.000000 -78.000000 39.105000 166 166 166
104.000000 -78.000000 39.105000 162 162 162
105.000000 -78.000000 39.341999 162 162 162
106.000000 -78.000000 39.341999 161 161 161
107.000000 -78.000000 40.053001 151 151 151
108.000000 -78.000000 40.290001 137 137 137
109.000000 -78.000000 40.290001 147 147 147
110.000000 -78.000000 40.290001 148 148 148
111.000000 -78.000000 40.290001 157 157 157
112.000000 -78.000000 40.290001 158 158 158
113.000000 -78.000000 40.290001 181 181 181
114.000000 -78.000000 40.290001 227 227 227
115.000000 -78.000000 40.290001 236 236 236
116.000000 -78.000000 40.290001 236 236 236
117.000000 -78.000000 40.290001 237 237 237
118.000000 -78.000000 39.579002 236 236 236
63.000000 -79.000000 34.128002 54 54 54
64.000000 -79.000000 34.365002 48 48 48
65.000000 -79.000000 34.602001 45 45 45
66.000000 -79.000000 34.839001 43 43 43
67.000000 -79.000000 35.076000 41 41 41
68.000000 -79.000000 35.076000 40 40 40
69.000000 -79.000000 35.076000 39 39 39
70.000000 -79.000000 35.313000 40 40 40
71.000000 -79.000000 35.313000 40 40 40
72.000000 -79.000000 35.786999 40 40 40
73.000000 -79.000000 36.498001 41 41 41
74.000000 -79.000000 36.735001 41 41 41
75.000000 -79.000000 36.735001 41 41 41
76.000000 -79.000000 36.972000 42 42 42
77.000000 -79.000000 36.972000 44 44 44
78.000000 -79.000000 36.735001 51 51 51
79.000000 -79.000000 36.735001 70 70 70
80.000000 -79.000000 36.498001 108 108 108
81.000000 -79.000000 36.498001 148 148 148
82.000000 -79.000000 36.735001 156 156 156
83.000000 -79.000000 36.735001 149 149 149
84.000000 -79.000000 36.735001 145 145 145
85.000000 -79.000000 36.735001 146 146 146
86.000000 -79.000000 36.735001 152 152 152
87.000000 -79.000000 36.498001 156 156 156
88.000000 -79.000000 36.498001 154 154 154
89.000000 -79.000000 36.735001 149 149 149
90.000000 -79.000000 36.972000 153 153 153
91.000000 -79.000000 37.209000 158 158 158
92.000000 -79.000000 37.445999 163 163 163
93.000000 -79.000000 37.920002 165 165 165
94.000000 -79.000000 37.920002 166 166 166
95.000000 -79.000000 38.157001 166 166 166
96.000000 -79.000000 38.157001 166 166 166
97.000000 -79.000000 38.394001 165 165 165
98.000000 -79.000000 38.394001 163 163 163
99.000000 -79.000000 38.631001 164 164 164
100.000000 -79.000000 38.631001 166 166 166
101.000000 -79.000000 38.631001 166 166 166
102.000000 -79.000000 38.631001 165 165 165
103.000000 -79.000000 39.105000 163 163 163
104.000000 -79.000000 39.105000 161 161 161
105.000000 -79.000000 39.341999 162 162 162
106.000000 -79.000000 39.341999 164 164 164
107.000000 -79.000000 40.290001 163 163 163
108.000000 -79.000000 40.290001 158 158 158
109.000000 -79.000000 40.290001 156 156 156
110.000000 -79.000000 40.290001 151 151 151
111.000000 -79.000000 40.290001 157 157 157
112.000000 -79.000000 40.290001 161 161 161
113.000000 -79.000000 40.290001 184 184 184
114.000000 -79.000000 40.290001 228 228 228
115.000000 -79.000000 40.290001 237 237 237
116.000000 -79.000000 40.290001 236 236 236
117.000000 -79.000000 40.053001 237 237 237
118.000000 -79.000000 39.579002 236 236 236
63.000000 -80.000000 34.365002 42 42 42
64.000000 -80.000000 35.076000 42 42 42
65.000000 -80.000000 35.313000 41 41 41
66.000000 -80.000000 35.313000 40 40 40
67.000000 -80.000000 35.313000 40 40 40
68.000000 -80.000000 35.313000 40 40 40
69.000000 -80.000000 35.313000 40 40 40
70.000000 -80.000000 35.313000 40 40 40
71.000000 -80.000000 35.549999 41 41 41
72.000000 -80.000000 36.261002 40 40 40
73.000000 -80.000000 36.735001 41 41 41
74.000000 -80.000000 36.735001 41 41 41
75.000000 -80.000000 36.972000 42 42 42
76.000000 -80.000000 36.972000 42 42 42
77.000000 -80.000000 36.972000 43 43 43
78.000000 -80.000000 36.972000 43 43 43
79.000000 -80.000000 36.972000 45 45 45
80.000000 -80.000000 36.735001 63 63 63
81.000000 -80.000000 36.735001 117 117 117
82.000000 -80.000000 36.972000 155 155 155
83.000000 -80.000000 36.972000 159 159 159
84.000000 -80.000000 36.972000 157 157 157
85.000000 -80.000000 36.972000 157 157 157
86.000000 -80.000000 36.972000 159 159 159
87.000000 -80.000000 36.735001 157 157 157
88.000000 -80.000000 36.735001 156 156 156
89.000000 -80.000000 36.972000 153 153 153
90.000000 -80.000000 37.209000 153 153 153
91.000000 -80.000000 37.209000 158 158 158
92.000000 -80.000000 37.445999 162 162 162
93.000000 -80.000000 37.920002 164 164 164
94.000000 -80.000000 37.920002 165 165 165
95.000000 -80.000000 38.157001 165 165 165
96.000000 -80.000000 38.157001 166 166 166
97.000000 -80.000000 38.394001 167 167 167
98.000000 -80.000000 38.631001 165 165 165
99.000000 -80.000000 38.631001 167 167 167
100.000000 -80.000000 38.631001 167 167 167
101.000000 -80.000000 38.631001 165 165 165
102.000000 -80.000000 38.631001 161 161 161
103.000000 -80.000000 39.105000 162 162 162
104.000000 -80.000000 39.105000 163 163 163
105.000000 -80.000000 39.341999 163 163 163
106.000000 -80.000000 39.341999 166 166 166
107.000000 -80.000000 40.053001 168 168 168
108.000000 -80.000000 40.290001 169 169 169
109.000000 -80.000000 40.290001 167 167 167
110.000000 -80.000000 40.290001 163 163 163
111.000000 -80.000000 40.290001 162 162 162
112.000000 -80.000000 40.053001 163 163 163
113.000000 -80.000000 40.053001 189 189 189
114.000000 -80.000000 40.053001 229 229 229
115.000000 -80.000000 40.053001 236 236 236
116.000000 -80.000000 40.053001 237 237 237
117.000000 -80.000000 39.579002 237 237 237
118.000000 -80.000000 39.341999 237 237 237
63.000000 -81.000000 35.076000 40 40 40
64.000000 -81.000000 35.786999 40 40 40
65.000000 -81.000000 35.786999 40 40 40
66.000000 -81.000000 35.786999 40 40 40
67.000000 -81.000000 35.549999 40 40 40
68.000000 -81.000000 35.549999 40 40 40
69.000000 -81.000000 35.549999 39 39 39
70.000000 -81.000000 35.549999 40 40 40
71.000000 -81.000000 36.261002 41 41 41
72.000000 -81.000000 36.498001 41 41 41
73.000000 -81.000000 36.735001 41 41 41
74.000000 -81.000000 36.972000 41 41 41
75.000000 -81.000000 36.972000 41 41 41
76.000000 -81.000000 36.972000 42 42 42
77.000000 -81.000000 37.209000 42 42 42
78.000000 -81.000000 37.209000 43 43 43
79.000000 -81.000000 36.972000 43 43 43
80.000000 -81.000000 36.972000 50 50 50
81.000000 -81.000000 36.972000 80 80 80
82.000000 -81.000000 36.972000 149 149 149
83.000000 -81.000000 36.972000 189 189 189
84.000000 -81.000000 36.972000 190 190 190
85.000000 -81.000000 36.972000 189 189 189
86.000000 -81.000000 36.972000 191 191 191
87.000000 -81.000000 36.972000 189 189 189
88.000000 -81.000000 36.972000 189 189 189
89.000000 -81.000000 36.972000 189 189 189
90.000000 -81.000000 37.209000 189 189 189
91.000000 -81.000000 37.209000 192 192 192
92.000000 -81.000000 37.445999 193 193 193
93.000000 -81.000000 37.920002 194 194 194
94.000000 -81.000000 37.920002 195 195 195
95.000000 -81.000000 37.920002 195 195 195
96.000000 -81.000000 38.157001 196 196 196
97.000000 -81.000000 38.157001 196 196 196
98.000000 -81.000000 38.394001 195 195 195
99.000000 -81.000000 38.631001 197 197 197
100.000000 -81.000000 38.631001 197 197 197
101.000000 -81.000000 38.631001 196 196 196
102.000000 -81.000000 38.631001 195 195 195
103.000000 -81.000000 38.868000 196 196 196
104.000000 -81.000000 39.105000 196 196 196
105.000000 -81.000000 39.105000 196 196 196
106.000000 -81.000000 39.341999 197 197 197
107.000000 -81.000000 39.579002 198 198 198
108.000000 -81.000000 40.053001 197 197 197
109.000000 -81.000000 40.053001 197 197 197
110.000000 -81.000000 39.816002 198 198 198
111.000000 -81.000000 39.816002 198 198 198
112.000000 -81.000000 39.579002 201 201 201
113.000000 -81.000000 39.579002 215 215 215
114.000000 -81.000000 39.579002 233 233 233
115.000000 -81.000000 39.579002 235 235 235
116.000000 -81.000000 39.579002 235 235 235
117.000000 -81.000000 39.341999 236 236 236
118.000000 -81.000000 38.868000 237 237 237
63.000000 -82.000000 35.786999 39 39 39
64.000000 -82.000000 36.261002 39 39 39
65.000000 -82.000000 36.261002 39 39 39
66.000000 -82.000000 36.261002 39 39 39
67.000000 -82.000000 36.261002 39 39 39
68.000000 -82.000000 36.024002 39 39 39
69.000000 -82.000000 36.024002 39 39 39
70.000000 -82.000000 36.261002 38 38 38
71.000000 -82.000000 36.498001 39 39 39
72.000000 -82.000000 36.498001 41 41 41
73.000000 -82.000000 36.735001 42 42 42
74.000000 -82.000000 36.735001 41 41 41
75.000000 -82.000000 36.972000 42 42 42
76.000000 -82.000000 36.972000 42 42 42
77.000000 -82.000000 37.209000 42 42 42
78.000000 -82.000000 37.209000 43 43 43
79.000000 -82.000000 36.972000 43 43 43
80.000000 -82.000000 36.972000 47 47 47
81.000000 -82.000000 36.972000 59 59 59
82.000000 -82.000000 36.972000 116 116 116
83.000000 -82.000000 36.972000 200 200 200
84.000000 -82.000000 36.972000 221 221 221
85.000000 -82.000000 36.972000 221 221 221
86.000000 -82.000000 36.972000 222 222 222
87.000000 -82.000000 36.972000 223 223 223
88.000000 -82.000000 36.972000 223 223 223
89.000000 -82.000000 36.972000 223 223 223
90.000000 -82.000000 36.972000 223 223 223
91.000000 -82.000000 37.209000 223 223 223
92.000000 -82.000000 37.209000 224 224 224
93.000000 -82.000000 37.682999 225 225 225
94.000000 -82.000000 37.920002 224 224 224
95.000000 -82.000000 37.920002 225 225 225
96.000000 -82.000000 37.920002 226 226 226
97.000000 -82.000000 38.157001 226 226 226
98.000000 -82.000000 38.157001 226 226 226
99.000000 -82.000000 38.394001 227 227 227
100.000000 -82.000000 38.394001 227 227 227
101.000000 -82.000000 38.394001 226 226 226
102.000000 -82.000000 38.631001 226 226 226
103.000000 -82.000000 38.631001 227 227 227
104.000000 -82.000000 38.868000 226 226 226
105.000000 -82.000000 38.868000 226 226 226
106.000000 -82.000000 39.105000 227 227 227
107.000000 -82.000000 39.341999 227 227 227
108.000000 -82.000000 39.579002 227 227 227
109.000000 -82.000000 39.579002 227 227 227
110.000000 -82.000000 39.579002 228 228 228
111.000000 -82.000000 39.341999 229 229 229
112.000000 -82.000000 39.341999 232 232 232
113.000000 -82.000000 39.341999 233 233 233
114.000000 -82.000000 39.341999 235 235 235
115.000000 -82.000000 39.341999 235 235 235
116.000000 -82.000000 39.341999 235 235 235
117.000000 -82.000000 39.105000 235 235 235
118.000000 -82.000000 38.631001 236 236 236
63.000000 -83.000000 35.313000 39 39 39
64.000000 -83.000000 36.261002 39 39 39
65.000000 -83.000000 36.261002 39 39 39
66.000000 -83.000000 36.261002 39 39 39
67.000000 -83.000000 36.261002 39 39 39
68.000000 -83.000000 36.261002 39 39 39
69.000000 -83.000000 36.498001 39 39 39
70.000000 -83.000000 36.498001 39 39 39
71.000000 -83.000000 36.498001 38 38 38
72.000000 -83.000000 36.498001 40 40 40
73.000000 -83.000000 36.498001 43 43 43
74.000000 -83.000000 36.735001 43 43 43
75.000000 -83.000000 36.735001 42 42 42
76.000000 -83.000000 36.972000 42 42 42
77.000000 -83.000000 36.972000 42 42 42
78.000000 -83.000000 36.972000 43 43 43
79.000000 -83.000000 36.972000 44 44 44
80.000000 -83.000000 36.972000 45 45 45
81.000000 -83.000000 36.972000 51 51 51
82.000000 -83.000000 36.972000 75 75 75
83.000000 -83.000000 36.972000 166 166 166
84.000000 -83.000000 36.735001 221 221 221
85.000000 -83.000000 36.735001 226 226 226
86.000000 -83.000000 36.735001 226 226 226
87.000000 -83.000000 36.735001 226 226 226
88.000000 -83.000000 36.735001 227 227 227
89.000000 -83.000000 36.972000 227 227 227
90.000000 -83.000000 36.972000 227 227 227
91.000000 -83.000000 36.972000 227 227 227
92.000000 -83.000000 37.209000 228 228 228
93.000000 -83.000000 37.445999 229 229 229
94.000000 -83.000000 37.682999 228 228 228
95.000000 -83.000000 37.682999 229 229 229
96.000000 -83.000000 37.920002 229 229 229
97.000000 -83.000000 37.920002 229 229 229
98.000000 -83.000000 37.920002 229 229 229
99.000000 -83.000000 38.157001 230 230 230
100.000000 -83.000000 38.157001 230 230 230
101.000000 -83.000000 38.394001 230 230 230
102.000000 -83.000000 38.394001 230 230 230
103.000000 -83.000000 38.394001 230 230 230
104.000000 -83.000000 38.631001 231 231 231
105.000000 -83.000000 38.631001 230 230 230
106.000000 -83.000000 38.868000 231 231 231
107.000000 -83.000000 38.868000 231 231 231
108.000000 -83.000000 39.105000 231 231 231
109.000000 -83.000000 39.105000 231 231 231
110.000000 -83.000000 39.105000 231 231 231
111.000000 -83.000000 39.105000 233 233 233
112.000000 -83.000000 39.105000 234 234 234
113.000000 -83.000000 39.105000 234 234 234
114.000000 -83.000000 38.868000 234 234 234
115.000000 -83.000000 38.868000 235 235 235
116.000000 -83.000000 39.105000 235 235 235
117.000000 -83.000000 39.105000 235 235 235
118.000000 -83.000000 38.394001 235 235 235
63.000000 -84.000000 34.839001 39 39 39
64.000000 -84.000000 35.313000 39 39 39
65.000000 -84.000000 35.549999 39 39 39
66.000000 -84.000000 35.786999 39 39 39
67.000000 -84.000000 36.261002 39 39 39
68.000000 -84.000000 36.261002 39 39 39
69.000000 -84.000000 36.498001 39 39 39
70.000000 -84.000000 36.498001 39 39 39
71.000000 -84.000000 36.261002 39 39 39
72.000000 -84.000000 36.261002 39 39 39
73.000000 -84.000000 36.261002 41 41 41
74.000000 -84.000000 36.261002 43 43 43
75.000000 -84.000000 36.498001 43 43 43
76.000000 -84.000000 36.498001 42 42 42
77.000000 -84.000000 36.498001 42 42 42
78.000000 -84.000000 36.735001 42 42 42
79.000000 -84.000000 36.735001 43 43 43
80.000000 -84.000000 36.735001 44 44 44
81.000000 -84.000000 36.735001 47 47 47
82.000000 -84.000000 36.735001 55 55 55
83.000000 -84.000000 36.735001 121 121 121
84.000000 -84.000000 36.735001 209 209 209
85.000000 -84.000000 36.498001 226 226 226
86.000000 -84.000000 36.498001 226 226 226
87.000000 -84.000000 36.498001 226 226 226
88.000000 -84.000000 36.498001 227 227 227
89.000000 -84.000000 36.735001 228 228 228
90.000000 -84.000000 36.735001 229 229 229
91.000000 -84.000000 36.735001 228 228 228
92.000000 -84.000000 36.735001 229 229 229
93.000000 -84.000000 37.209000 229 229 229
94.000000 -84.000000 37.445999 229 229 229
95.000000 -84.000000 37.445999 229 229 229
96.000000 -84.000000 37.682999 229 229 229
97.000000 -84.000000 37.682999 230 230 230
98.000000 -84.000000 37.920002 231 231 231
99.000000 -84.000000 37.920002 232 232 232
100.000000 -84.000000 37.920002 232 232 232
101.000000 -84.000000 38.157001 231 231 231
102.000000 -84.000000 38.157001 231 231 231
103.000000 -84.000000 38.394001 231 231 231
104.000000 -84.000000 38.394001 232 232 232
105.000000 -84.000000 38.631001 231 231 231
106.000000 -84.000000 38.631001 231 231 231
107.000000 -84.000000 38.868000 233 233 233
108.000000 -84.000000 38.868000 233 233 233
109.000000 -84.000000 38.868000 232 232 232
110.000000 -84.000000 38.868000 233 233 233
111.000000 -84.000000 38.868000 233 233 233
112.000000 -84.000000 38.868000 234 234 234
113.000000 -84.000000 38.868000 234 234 234
114.000000 -84.000000 38.868000 233 233 233
115.000000 -84.000000 38.868000 234 234 234
116.000000 -84.000000 38.868000 234 234 234
117.000000 -84.000000 38.868000 234 234 234
118.000000 -84.000000 38.157001 234 234 234
63.000000 -85.000000 34.839001 39 39 39
64.000000 -85.000000 35.076000 39 39 39
65.000000 -85.000000 35.313000 39 39 39
66.000000 -85.000000 35.549999 39 39 39
67.000000 -85.000000 35.786999 39 39 39
68.000000 -85.000000 36.024002 39 39 39
69.000000 -85.000000 36.261002 39 39 39
70.000000 -85.000000 36.024002 39 39 39
71.000000 -85.000000 35.786999 39 39 39
72.000000 -85.000000 35.786999 39 39 39
73.000000 -85.000000 35.786999 40 40 40
74.000000 -85.000000 35.786999 41 41 41
75.000000 -85.000000 35.786999 42 42 42
76.000000 -85.000000 35.786999 43 43 43
77.000000 -85.000000 36.024002 42 42 42
78.000000 -85.000000 36.261002 42 42 42
79.000000 -85.000000 36.498001 43 43 43
80.000000 -85.000000 36.498001 43 43 43
81.000000 -85.000000 36.498001 45 45 45
82.000000 -85.000000 36.735001 49 49 49
83.000000 -85.000000 36.498001 85 85 85
84.000000 -85.000000 36.498001 181 181 181
85.000000 -85.000000 36.498001 224 224 224
86.000000 -85.000000 36.498001 226 226 226
87.000000 -85.000000 36.261002 227 227 227
88.000000 -85.000000 36.261002 228 228 228
89.000000 -85.000000 36.498001 228 228 228
90.000000 -85.000000 36.498001 228 228 228
91.000000 -85.000000 36.735001 229 229 229
92.000000 -85.000000 36.735001 229 229 229
93.000000 -85.000000 36.972000 229 229 229
94.000000 -85.000000 37.209000 229 229 229
95.000000 -85.000000 37.445999 229 229 229
96.000000 -85.000000 37.445999 230 230 230
97.000000 -85.000000 37.445999 231 231 231
98.000000 -85.000000 37.445999 232 232 232
99.000000 -85.000000 37.682999 232 232 232
100.000000 -85.000000 37.920002 232 232 232
101.000000 -85.000000 37.920002 232 232 232
102.000000 -85.000000 37.920002 232 232 232
103.000000 -85.000000 38.157001 232 232 232
104.000000 -85.000000 38.394001 232 232 232
105.000000 -85.000000 38.394001 232 232 232
106.000000 -85.000000 38.631001 232 232 232
107.000000 -85.000000 38.631001 233 233 233
108.000000 -85.000000 38.631001 234 234 234
109.000000 -85.000000 38.631001 233 233 233
110.000000 -85.000000 38.394001 233 233 233
111.000000 -85.000000 38.394001 233 233 233
112.000000 -85.000000 38.394001 233 233 233
113.000000 -85.000000 38.631001 234 234 234
114.000000 -85.000000 38.868000 233 233 233
115.000000 -85.000000 38.868000 233 233 233
116.000000 -85.000000 38.868000 234 234 234
117.000000 -85.000000 38.868000 234 234 234
118.000000 -85.000000 38.157001 234 234 234
63.000000 -86.000000 34.602001 45 45 45
64.000000 -86.000000 34.839001 54 54 54
65.000000 -86.000000 35.313000 55 55 55
66.000000 -86.000000 35.549999 49 49 49
67.000000 -86.000000 35.549999 44 44 44
68.000000 -86.000000 35.786999 45 45 45
69.000000 -86.000000 35.786999 45 45 45
70.000000 -86.000000 35.786999 42 42 42
71.000000 -86.000000 35.786999 41 41 41
72.000000 -86.000000 35.549999 41 41 41
73.000000 -86.000000 35.549999 40 40 40
74.000000 -86.000000 35.313000 42 42 42
75.000000 -86.000000 35.549999 43 43 43
76.000000 -86.000000 35.549999 43 43 43
77.000000 -86.000000 35.786999 43 43 43
78.000000 -86.000000 35.786999 42 42 42
79.000000 -86.000000 36.024002 43 43 43
80.000000 -86.000000 36.261002 43 43 43
81.000000 -86.000000 36.498001 44 44 44
82.000000 -86.000000 36.498001 48 48 48
83.000000 -86.000000 36.498001 66 66 66
84.000000 -86.000000 36.498001 146 146 146
85.000000 -86.000000 36.498001 218 218 218
86.000000 -86.000000 36.498001 227 227 227
87.000000 -86.000000 36.261002 227 227 227
88.000000 -86.000000 36.024002 228 228 228
89.000000 -86.000000 36.261002 228 228 228
90.000000 -86.000000 36.498001 228 228 228
91.000000 -86.000000 36.498001 229 229 229
92.000000 -86.000000 36.498001 228 228 228
93.000000 -86.000000 36.972000 229 229 229
94.000000 -86.000000 37.209000 230 230 230
95.000000 -86.000000 37.209000 229 229 229
96.000000 -86.000000 37.209000 230 230 230
97.000000 -86.000000 37.209000 231 231 231
98.000000 -86.000000 37.209000 232 232 232
99.000000 -86.000000 37.445999 232 232 232
100.000000 -86.000000 37.682999 232 232 232
101.000000 -86.000000 37.682999 232 232 232
102.000000 -86.000000 37.920002 231 231 231
103.000000 -86.000000 37.920002 231 231 231
104.000000 -86.000000 38.157001 232 232 232
105.000000 -86.000000 38.394001 232 232 232
106.000000 -86.000000 38.394001 232 232 232
107.000000 -86.000000 38.631001 233 233 233
108.000000 -86.000000 38.631001 233 233 233
109.000000 -86.000000 38.394001 233 233 233
110.000000 -86.000000 38.394001 232 232 232
111.000000 -86.000000 38.157001 233 233 233
112.000000 -86.000000 38.394001 233 233 233
113.000000 -86.000000 38.394001 233 233 233
114.000000 -86.000000 38.631001 233 233 233
115.000000 -86.000000 38.868000 233 233 233
116.000000 -86.000000 38.868000 233 233 233
117.000000 -86.000000 38.868000 233 233 233
118.000000 -86.000000 37.920002 233 233 233
63.000000 -87.000000 34.602001 80 80 80
64.000000 -87.000000 34.839001 96 96 96
65.000000 -87.000000 35.313000 99 99 99
66.000000 -87.000000 35.313000 93 93 93
67.000000 -87.000000 35.549999 84 84 84
68.000000 -87.000000 35.549999 73 73 73
69.000000 -87.000000 35.786999 73 73 73
70.000000 -87.000000 35.786999 68 68 68
71.000000 -87.000000 35.549999 64 64 64
72.000000 -87.000000 35.549999 58 58 58
73.000000 -87.000000 35.313000 44 44 44
74.000000 -87.000000 35.313000 61 61 61
75.000000 -87.000000 35.313000 63 63 63
76.000000 -87.000000 35.313000 49 49 49
77.000000 -87.000000 35.549999 44 44 44
78.000000 -87.000000 35.549999 43 43 43
79.000000 -87.000000 35.786999 43 43 43
80.000000 -87.000000 35.786999 42 42 42
81.000000 -87.000000 36.261002 43 43 43
82.000000 -87.000000 36.498001 48 48 48
83.000000 -87.000000 36.498001 57 57 57
84.000000 -87.000000 36.498001 113 113 113
85.000000 -87.000000 36.498001 205 205 205
86.000000 -87.000000 36.498001 225 225 225
87.000000 -87.000000 36.024002 225 225 225
88.000000 -87.000000 35.786999 227 227 227
89.000000 -87.000000 35.786999 227 227 227
90.000000 -87.000000 36.261002 228 228 228
91.000000 -87.000000 36.498001 228 228 228
92.000000 -87.000000 36.735001 229 229 229
93.000000 -87.000000 37.209000 229 229 229
94.000000 -87.000000 37.209000 230 230 230
95.000000 -87.000000 37.209000 229 229 229
96.000000 -87.000000 37.209000 229 229 229
97.000000 -87.000000 37.209000 231 231 231
98.000000 -87.000000 37.209000 232 232 232
99.000000 -87.000000 37.209000 232 232 232
100.000000 -87.000000 37.209000 231 231 231
101.000000 -87.000000 37.445999 231 231 231
102.000000 -87.000000 37.682999 231 231 231
103.000000 -87.000000 37.920002 232 232 232
104.000000 -87.000000 37.920002 232 232 232
105.000000 -87.000000 38.157001 232 232 232
106.000000 -87.000000 38.394001 232 232 232
107.000000 -87.000000 38.631001 232 232 232
108.000000 -87.000000 38.631001 233 233 233
109.000000 -87.000000 38.394001 232 232 232
110.000000 -87.000000 38.157001 232 232 232
111.000000 -87.000000 38.157001 232 232 232
112.000000 -87.000000 37.920002 233 233 233
113.000000 -87.000000 38.394001 233 233 233
114.000000 -87.000000 38.631001 233 233 233
115.000000 -87.000000 38.868000 233 233 233
116.000000 -87.000000 39.105000 233 233 233
117.000000 -87.000000 39.105000 233 233 233
118.000000 -87.000000 37.920002 232 232 232
63.000000 -88.000000 34.602001 82 82 82
64.000000 -88.000000 34.839001 85 85 85
65.000000 -88.000000 35.313000 86 86 86
66.000000 -88.000000 35.313000 84 84 84
67.000000 -88.000000 35.313000 80 80 80
68.000000 -88.000000 35.549999 71 71 71
69.000000 -88.000000 35.549999 74 74 74
70.000000 -88.000000 35.549999 76 76 76
71.000000 -88.000000 35.313000 80 80 80
72.000000 -88.000000 35.313000 74 74 74
73.000000 -88.000000 35.313000 49 49 49
74.000000 -88.000000 35.313000 80 80 80
75.000000 -88.000000 35.313000 93 93 93
76.000000 -88.000000 35.313000 76 76 76
77.000000 -88.000000 35.549999 49 49 49
78.000000 -88.000000 35.549999 43 43 43
79.000000 -88.000000 35.549999 42 42 42
80.000000 -88.000000 35.786999 41 41 41
81.000000 -88.000000 35.786999 43 43 43
82.000000 -88.000000 36.261002 48 48 48
83.000000 -88.000000 36.261002 54 54 54
84.000000 -88.000000 36.498001 92 92 92
85.000000 -88.000000 36.498001 190 190 190
86.000000 -88.000000 36.498001 224 224 224
87.000000 -88.000000 36.024002 225 225 225
88.000000 -88.000000 36.024002 226 226 226
89.000000 -88.000000 36.024002 227 227 227
90.000000 -88.000000 36.261002 228 228 228
91.000000 -88.000000 36.735001 229 229 229
92.000000 -88.000000 36.735001 229 229 229
93.000000 -88.000000 37.209000 230 230 230
94.000000 -88.000000 37.209000 230 230 230
95.000000 -88.000000 37.209000 230 230 230
96.000000 -88.000000 37.209000 230 230 230
97.000000 -88.000000 37.209000 230 230 230
98.000000 -88.000000 37.209000 231 231 231
99.000000 -88.000000 36.972000 231 231 231
100.000000 -88.000000 36.972000 231 231 231
101.000000 -88.000000 36.972000 231 231 231
102.000000 -88.000000 37.209000 231 231 231
103.000000 -88.000000 37.445999 231 231 231
104.000000 -88.000000 37.920002 231 231 231
105.000000 -88.000000 37.920002 231 231 231
106.000000 -88.000000 38.157001 231 231 231
107.000000 -88.000000 38.394001 232 232 232
108.000000 -88.000000 38.394001 232 232 232
109.000000 -88.000000 38.394001 232 232 232
110.000000 -88.000000 38.394001 232 232 232
111.000000 -88.000000 38.157001 232 232 232
112.000000 -88.000000 38.157001 232 232 232
113.000000 -88.000000 38.157001 232 232 232
114.000000 -88.000000 38.394001 232 232 232
115.000000 -88.000000 38.868000 232 232 232
116.000000 -88.000000 39.105000 233 233 233
117.000000 -88.000000 39.105000 233 233 233
118.000000 -88.000000 38.157001 232 232 232
63.000000 -89.000000 34.839001 56 56 56
64.000000 -89.000000 35.076000 47 47 47
65.000000 -89.000000 35.313000 47 47 47
66.000000 -89.000000 35.313000 47 47 47
67.000000 -89.000000 35.313000 47 47 47
68.000000 -89.000000 35.313000 47 47 47
69.000000 -89.000000 35.313000 48 48 48
70.000000 -89.000000 35.313000 49 49 49
71.000000 -89.000000 35.313000 49 49 49
72.000000 -89.000000 35.313000 48 48 48
73.000000 -89.000000 35.313000 43 43 43
74.000000 -89.000000 35.313000 56 56 56
75.000000 -89.000000 35.313000 69 69 69
76.000000 -89.000000 35.313000 68 68 68
77.000000 -89.000000 35.549999 48 48 48
78.000000 -89.000000 35.549999 42 42 42
79.000000 -89.000000 35.549999 41 41 41
80.000000 -89.000000 35.549999 41 41 41
81.000000 -89.000000 35.786999 43 43 43
82.000000 -89.000000 36.024002 47 47 47
83.000000 -89.000000 36.261002 52 52 52
84.000000 -89.000000 36.261002 80 80 80
85.000000 -89.000000 36.498001 178 178 178
86.000000 -89.000000 36.498001 223 223 223
87.000000 -89.000000 36.261002 225 225 225
88.000000 -89.000000 36.024002 226 226 226
89.000000 -89.000000 36.261002 227 227 227
90.000000 -89.000000 36.498001 228 228 228
91.000000 -89.000000 36.735001 228 228 228
92.000000 -89.000000 36.735001 228 228 228
93.000000 -89.000000 37.209000 229 229 229
94.000000 -89.000000 37.445999 229 229 229
95.000000 -89.000000 37.445999 229 229 229
96.000000 -89.000000 37.209000 229 229 229
97.000000 -89.000000 37.209000 230 230 230
98.000000 -89.000000 36.972000 231 231 231
99.000000 -89.000000 36.972000 231 231 231
100.000000 -89.000000 36.972000 231 231 231
101.000000 -89.000000 36.972000 231 231 231
102.000000 -89.000000 36.972000 231 231 231
103.000000 -89.000000 37.209000 231 231 231
104.000000 -89.000000 37.445999 231 231 231
105.000000 -89.000000 37.920002 231 231 231
106.000000 -89.000000 37.920002 231 231 231
107.000000 -89.000000 38.394001 231 231 231
108.000000 -89.000000 38.394001 231 231 231
109.000000 -89.000000 38.394001 231 231 231
110.000000 -89.000000 38.394001 232 232 232
111.000000 -89.000000 38.394001 232 232 232
112.000000 -89.000000 38.157001 232 232 232
113.000000 -89.000000 38.394001 232 232 232
114.000000 -89.000000 38.394001 232 232 232
115.000000 -89.000000 38.631001 231 231 231
116.000000 -89.000000 39.105000 232 232 232
117.000000 -89.000000 39.105000 232 232 232
118.000000 -89.000000 38.157001 232 232 232
63.000000 -90.000000 35.076000 89 89 89
64.000000 -90.000000 35.076000 70 70 70
65.000000 -90.000000 35.313000 70 70 70
66.000000 -90.000000 35.313000 71 71 71
67.000000 -90.000000 35.076000 72 72 72
68.000000 -90.000000 35.076000 73 73 73
69.000000 -90.000000 35.076000 72 72 72
70.000000 -90.000000 35.076000 66 66 66
71.000000 -90.000000 35.313000 47 47 47
72.000000 -90.000000 35.313000 40 40 40
73.000000 -90.000000 35.313000 40 40 40
74.000000 -90.000000 35.313000 42 42 42
75.000000 -90.000000 35.313000 45 45 45
76.000000 -90.000000 35.549999 45 45 45
77.000000 -90.000000 35.549999 44 44 44
78.000000 -90.000000 35.549999 43 43 43
79.000000 -90.000000 35.549999 41 41 41
80.000000 -90.000000 35.549999 41 41 41
81.000000 -90.000000 35.549999 43 43 43
82.000000 -90.000000 35.786999 46 46 46
83.000000 -90.000000 35.786999 51 51 51
84.000000 -90.000000 36.261002 76 76 76
85.000000 -90.000000 36.261002 171 171 171
86.000000 -90.000000 36.261002 222 222 222
87.000000 -90.000000 36.261002 225 225 225
88.000000 -90.000000 36.261002 225 225 225
89.000000 -90.000000 36.498001 226 226 226
90.000000 -90.000000 36.498001 227 227 227
91.000000 -90.000000 36.735001 227 227 227
92.000000 -90.000000 36.735001 227 227 227
93.000000 -90.000000 37.209000 227 227 227
94.000000 -90.000000 37.445999 228 228 228
95.000000 -90.000000 37.445999 229 229 229
96.000000 -90.000000 37.445999 229 229 229
97.000000 -90.000000 37.209000 229 229 229
98.000000 -90.000000 36.972000 230 230 230
99.000000 -90.000000 36.972000 231 231 231
100.000000 -90.000000 36.735001 230 230 230
101.000000 -90.000000 36.735001 230 230 230
102.000000 -90.000000 36.735001 231 231 231
103.000000 -90.000000 36.735001 231 231 231
104.000000 -90.000000 36.972000 232 232 232
105.000000 -90.000000 37.445999 231 231 231
106.000000 -90.000000 37.920002 231 231 231
107.000000 -90.000000 38.157001 231 231 231
108.000000 -90.000000 38.394001 231 231 231
109.000000 -90.000000 38.394001 230 230 230
110.000000 -90.000000 38.394001 231 231 231
111.000000 -90.000000 38.394001 231 231 231
112.000000 -90.000000 38.631001 231 231 231
113.000000 -90.000000 38.394001 232 232 232
114.000000 -90.000000 38.394001 232 232 232
115.000000 -90.000000 38.394001 231 231 231
116.000000 -90.000000 38.631001 231 231 231
117.000000 -90.000000 38.631001 231 231 231
118.000000 -90.000000 37.920002 231 231 231
63.000000 -91.000000 35.076000 100 100 100
64.000000 -91.000000 35.076000 90 90 90
65.000000 -91.000000 35.076000 92 92 92
66.000000 -91.000000 35.076000 95 95 95
67.000000 -91.000000 35.076000 90 90 90
68.000000 -91.000000 35.076000 79 79 79
69.000000 -91.000000 35.076000 73 73 73
70.000000 -91.000000 35.076000 77 77 77
71.000000 -91.000000 35.076000 60 60 60
72.000000 -91.000000 35.313000 41 41 41
73.000000 -91.000000 35.313000 41 41 41
74.000000 -91.000000 35.313000 42 42 42
75.000000 -91.000000 35.313000 44 44 44
76.000000 -91.000000 35.549999 45 45 45
77.000000 -91.000000 35.549999 44 44 44
78.000000 -91.000000 35.549999 44 44 44
79.000000 -91.000000 35.313000 41 41 41
80.000000 -91.000000 35.313000 40 40 40
81.000000 -91.000000 35.549999 42 42 42
82.000000 -91.000000 35.549999 46 46 46
83.000000 -91.000000 35.786999 51 51 51
84.000000 -91.000000 35.786999 74 74 74
85.000000 -91.000000 36.024002 168 168 168
86.000000 -91.000000 36.261002 221 221 221
87.000000 -91.000000 36.261002 224 224 224
88.000000 -91.000000 36.261002 225 225 225
89.000000 -91.000000 36.498001 226 226 226
90.000000 -91.000000 36.498001 227 227 227
91.000000 -91.000000 36.735001 227 227 227
92.000000 -91.000000 36.735001 226 226 226
93.000000 -91.000000 37.209000 227 227 227
94.000000 -91.000000 37.445999 228 228 228
95.000000 -91.000000 37.445999 228 228 228
96.000000 -91.000000 37.445999 228 228 228
97.000000 -91.000000 37.209000 229 229 229
98.000000 -91.000000 36.972000 229 229 229
99.000000 -91.000000 36.735001 229 229 229
100.000000 -91.000000 36.498001 230 230 230
101.000000 -91.000000 36.498001 230 230 230
102.000000 -91.000000 36.261002 231 231 231
103.000000 -91.000000 36.261002 230 230 230
104.000000 -91.000000 36.261002 230 230 230
105.000000 -91.000000 36.735001 230 230 230
106.000000 -91.000000 37.209000 230 230 230
107.000000 -91.000000 37.920002 231 231 231
108.000000 -91.000000 38.157001 230 230 230
109.000000 -91.000000 38.394001 230 230 230
110.000000 -91.000000 38.394001 230 230 230
111.000000 -91.000000 38.631001 230 230 230
112.000000 -91.000000 38.631001 230 230 230
113.000000 -91.000000 38.631001 230 230 230
114.000000 -91.000000 38.394001 231 231 231
115.000000 -91.000000 38.394001 231 231 231
116.000000 -91.000000 38.394001 231 231 231
117.000000 -91.000000 37.920002 231 231 231
118.000000 -91.000000 37.209000 231 231 231
63.000000 -92.000000 34.839001 88 88 88
64.000000 -92.000000 35.076000 100 100 100
65.000000 -92.000000 35.076000 122 122 122
66.000000 -92.000000 35.076000 135 135 135
67.000000 -92.000000 35.076000 112 112 112
68.000000 -92.000000 35.076000 71 71 71
69.000000 -92.000000 35.076000 59 59 59
70.000000 -92.000000 35.076000 71 71 71
71.000000 -92.000000 35.076000 65 65 65
72.000000 -92.000000 35.076000 42 42 42
73.000000 -92.000000 35.313000 42 42 42
74.000000 -92.000000 35.313000 43 43 43
75.000000 -92.000000 35.313000 44 44 44
76.000000 -92.000000 35.549999 46 46 46
77.000000 -92.000000 35.549999 45 45 45
78.000000 -92.000000 35.313000 43 43 43
79.000000 -92.000000 35.313000 41 41 41
80.000000 -92.000000 35.313000 40 40 40
81.000000 -92.000000 35.313000 42 42 42
82.000000 -92.000000 35.549999 46 46 46
83.000000 -92.000000 35.549999 51 51 51
84.000000 -92.000000 35.786999 73 73 73
85.000000 -92.000000 35.786999 165 165 165
86.000000 -92.000000 36.024002 220 220 220
87.000000 -92.000000 36.024002 223 223 223
88.000000 -92.000000 36.261002 224 224 224
89.000000 -92.000000 36.498001 226 226 226
90.000000 -92.000000 36.498001 226 226 226
91.000000 -92.000000 36.735001 226 226 226
92.000000 -92.000000 36.735001 227 227 227
93.000000 -92.000000 37.209000 227 227 227
94.000000 -92.000000 37.445999 227 227 227
95.000000 -92.000000 37.445999 227 227 227
96.000000 -92.000000 37.209000 227 227 227
97.000000 -92.000000 36.972000 228 228 228
98.000000 -92.000000 36.735001 228 228 228
99.000000 -92.000000 36.498001 228 228 228
100.000000 -92.000000 36.498001 229 229 229
101.000000 -92.000000 36.024002 229 229 229
102.000000 -92.000000 35.786999 230 230 230
103.000000 -92.000000 35.786999 229 229 229
104.000000 -92.000000 35.786999 229 229 229
105.000000 -92.000000 35.786999 230 230 230
106.000000 -92.000000 36.261002 230 230 230
107.000000 -92.000000 37.209000 230 230 230
108.000000 -92.000000 37.920002 229 229 229
109.000000 -92.000000 38.157001 230 230 230
110.000000 -92.000000 38.394001 230 230 230
111.000000 -92.000000 38.631001 230 230 230
112.000000 -92.000000 38.631001 230 230 230
113.000000 -92.000000 38.631001 230 230 230
114.000000 -92.000000 38.631001 230 230 230
115.000000 -92.000000 38.394001 230 230 230
116.000000 -92.000000 38.157001 230 230 230
117.000000 -92.000000 37.920002 230 230 230
118.000000 -92.000000 35.549999 231 231 231
63.000000 -93.000000 34.839001 91 91 91
64.000000 -93.000000 34.839001 97 97 97
65.000000 -93.000000 34.839001 112 112 112
66.000000 -93.000000 34.839001 141 141 141
67.000000 -93.000000 34.839001 122 122 122
68.000000 -93.000000 34.839001 71 71 71
69.000000 -93.000000 34.839001 56 56 56
70.000000 -93.000000 34.839001 71 71 71
71.000000 -93.000000 34.839001 67 67 67
72.000000 -93.000000 35.076000 43 43 43
73.000000 -93.000000 35.076000 42 42 42
74.000000 -93.000000 35.076000 43 43 43
75.000000 -93.000000 35.313000 44 44 44
76.000000 -93.000000 35.313000 46 46 46
77.000000 -93.000000 35.313000 45 45 45
78.000000 -93.000000 35.313000 41 41 41
79.000000 -93.000000 35.313000 39 39 39
80.000000 -93.000000 35.313000 40 40 40
81.000000 -93.000000 35.313000 43 43 43
82.000000 -93.000000 35.549999 46 46 46
83.000000 -93.000000 35.549999 51 51 51
84.000000 -93.000000 35.549999 70 70 70
85.000000 -93.000000 35.786999 159 159 159
86.000000 -93.000000 35.786999 219 219 219
87.000000 -93.000000 35.786999 223 223 223
88.000000 -93.000000 36.024002 223 223 223
89.000000 -93.000000 36.498001 224 224 224
90.000000 -93.000000 36.735001 225 225 225
91.000000 -93.000000 36.735001 225 225 225
92.000000 -93.000000 36.735001 226 226 226
93.000000 -93.000000 37.209000 227 227 227
94.000000 -93.000000 37.209000 226 226 226
95.000000 -93.000000 37.209000 226 226 226
96.000000 -93.000000 36.972000 227 227 227
97.000000 -93.000000 36.972000 227 227 227
98.000000 -93.000000 36.735001 228 228 228
99.000000 -93.000000 36.498001 227 227 227
100.000000 -93.000000 36.024002 228 228 228
101.000000 -93.000000 35.786999 229 229 229
102.000000 -93.000000 35.786999 229 229 229
103.000000 -93.000000 35.786999 229 229 229
104.000000 -93.000000 35.549999 229 229 229
105.000000 -93.000000 35.549999 229 229 229
106.000000 -93.000000 35.786999 229 229 229
107.000000 -93.000000 36.024002 229 229 229
108.000000 -93.000000 37.209000 229 229 229
109.000000 -93.000000 37.920002 229 229 229
110.000000 -93.000000 38.157001 229 229 229
111.000000 -93.000000 38.394001 230 230 230
112.000000 -93.000000 38.631001 230 230 230
113.000000 -93.000000 38.631001 230 230 230
